-0.339217 -0.298166 -0.377740 
-0.084480 0.195625 0.262868 
-0.101891 0.176763 0.251974 
-0.103521 0.168718 0.235241 
-0.106226 0.159940 0.218916 
-0.106537 0.152785 0.201662 
-0.108113 0.144768 0.184888 
-0.104037 0.140555 0.165846 
-0.093284 0.140798 0.144034 
-0.089128 0.136573 0.124796 
-0.092093 0.127570 0.108450 
-0.096653 0.117509 0.092783 
-0.104571 0.105231 0.078568 
-0.111556 0.093592 0.064011 
-0.125046 0.077686 0.052338 
-0.247735 -0.009913 0.088957 
-0.275934 -0.035134 0.084646 
-0.293115 -0.053054 0.075630 
-0.305410 -0.067732 0.064538 
-0.311104 -0.078086 0.050503 
-0.316462 -0.088208 0.036347 
-0.321796 -0.098300 0.022214 
-0.332588 -0.111887 0.010721 
-0.398533 -0.160755 0.025941 
-0.412627 -0.176261 0.016527 
-0.425345 -0.190841 0.006562 
-0.436295 -0.204256 -0.004174 
-0.446791 -0.217346 -0.015045 
-0.452802 -0.227577 -0.028109 
-0.459095 -0.237967 -0.040987 
-0.465766 -0.248576 -0.053625 
-0.478443 -0.262911 -0.063061 
-0.486546 -0.274358 -0.074810 
-0.495292 -0.286178 -0.086150 
-0.483452 -0.285262 -0.108547 
-0.473973 -0.285858 -0.129801 
-0.220340 -0.143834 -0.303264 
-0.239966 -0.162793 -0.309784 
-0.256815 -0.179994 -0.317694 
-0.263713 -0.191117 -0.331144 
-0.269424 -0.201505 -0.345228 
-0.096131 0.196478 0.222043 
-0.105299 0.183223 0.208127 
-0.114819 0.169755 0.194421 
-0.114425 0.163080 0.176842 
-0.110556 0.158756 0.157835 
-0.101159 0.158155 0.136509 
-0.100191 0.151809 0.118547 
-0.109762 0.138348 0.104965 
-0.112604 0.129438 0.088606 
-0.118674 0.118368 0.073638 
-0.125910 0.106535 0.059216 
-0.150778 0.082985 0.052590 
-0.166746 0.065436 0.042244 
-0.272473 -0.011433 0.072399 
-0.291015 -0.030380 0.063974 
-0.304522 -0.045950 0.053404 
-0.310264 -0.056384 0.039339 
-0.312372 -0.064429 0.023603 
-0.316379 -0.073711 0.008769 
-0.307836 -0.074840 -0.012080 
-0.390208 -0.134831 0.011157 
-0.408870 -0.153402 0.003929 
-0.422454 -0.168640 -0.005647 
-0.432468 -0.181543 -0.016893 
-0.446460 -0.196952 -0.026039 
-0.456147 -0.209571 -0.037265 
-0.458038 -0.217213 -0.052446 
-0.462036 -0.226187 -0.066527 
-0.463785 -0.233736 -0.081775 
-0.482150 -0.251722 -0.088161 
-0.495934 -0.266771 -0.096842 
-0.498275 -0.274632 -0.111626 
-0.101303 0.208805 0.196060 
-0.112229 0.194285 0.182851 
-0.117210 0.183894 0.167347 
-0.114823 0.178575 0.148876 
-0.107997 0.176276 0.128531 
-0.110399 0.167641 0.111937 
-0.121658 0.152979 0.099081 
-0.127700 0.141893 0.084091 
-0.131160 0.132570 0.068023 
-0.138957 0.120326 0.053865 
-0.159632 0.099448 0.045464 
-0.172690 0.083751 0.033844 
-0.205861 0.054661 0.031447 
-0.282734 -0.003411 0.049397 
-0.298036 -0.020289 0.039594 
-0.305878 -0.032174 0.026433 
-0.305336 -0.038503 0.009358 
-0.299530 -0.041381 -0.010266 
-0.282803 -0.037132 -0.035264 
-0.231501 -0.010363 -0.077389 
-0.216642 -0.007561 -0.102042 
-0.203770 -0.006121 -0.125881 
-0.188245 -0.003027 -0.151220 
-0.190573 -0.011525 -0.167629 
-0.191648 -0.019219 -0.184683 
-0.193267 -0.027265 -0.201466 
-0.194560 -0.035106 -0.218427 
-0.192776 -0.040991 -0.237035 
-0.187057 -0.044396 -0.257800 
-0.158314 -0.033271 -0.291141 
-0.028289 0.282882 0.156700 
-0.099040 0.226401 0.166961 
-0.109574 0.212079 0.153580 
-0.108646 0.205739 0.135592 
-0.113038 0.195709 0.119776 
-0.117697 0.185502 0.104094 
-0.129855 0.170152 0.091625 
-0.144430 0.153186 0.080298 
-0.142426 0.147597 0.061880 
-0.149423 0.135860 0.047385 
-0.166483 0.117311 0.037425 
-0.179684 0.101434 0.025880 
-0.194965 0.084199 0.015398 
-0.226901 0.055814 0.012740 
-0.282995 0.011348 0.021670 
-0.291880 -0.001327 0.008882 
-0.287183 -0.004922 -0.010318 
-0.260830 0.005844 -0.040041 
-0.251934 0.004928 -0.061548 
-0.235675 0.008827 -0.086804 
-0.238019 0.000405 -0.102982 
-0.235452 -0.004795 -0.121632 
-0.192596 0.016334 -0.160840 
-0.190685 0.010581 -0.179468 
-0.191525 0.003024 -0.196711 
-0.190128 -0.003090 -0.215143 
-0.185817 -0.007339 -0.235159 
-0.179745 -0.010482 -0.256189 
-0.016602 0.314795 0.141165 
-0.065819 0.272967 0.142853 
-0.090922 0.248265 0.135202 
-0.100563 0.234484 0.121405 
-0.113001 0.218780 0.108854 
-0.125029 0.203403 0.096235 
-0.141938 0.184679 0.085808 
-0.155914 0.168045 0.074263 
-0.155775 0.161197 0.056647 
-0.157942 0.152753 0.040030 
-0.172429 0.135861 0.028946 
-0.182255 0.122205 0.015873 
-0.199970 0.103204 0.006505 
-0.208494 0.090513 -0.006973 
-0.225405 0.072166 -0.016440 
-0.236620 0.057728 -0.028462 
-0.245291 0.045040 -0.041612 
-0.246588 0.037328 -0.058277 
-0.235854 0.037662 -0.080862 
-0.242938 0.026058 -0.094736 
-0.255159 0.011058 -0.105980 
-0.258669 0.001874 -0.121536 
-0.258482 -0.004861 -0.138973 
-0.071951 0.292166 0.134416 
-0.087486 0.274080 0.122876 
-0.108912 0.251885 0.113924 
-0.120892 0.236427 0.101193 
-0.138383 0.217135 0.090913 
-0.148887 0.202803 0.077777 
-0.157132 0.190083 0.063741 
-0.169986 0.174177 0.051804 
-0.164590 0.170992 0.031816 
-0.170384 0.160026 0.016812 
-0.187582 0.141199 0.007066 
-0.200885 0.125117 -0.004327 
-0.212661 0.110129 -0.016318 
-0.218611 0.099166 -0.030967 
-0.224918 0.087976 -0.045406 
-0.226936 0.079719 -0.061878 
-0.225011 0.074135 -0.080283 
-0.227221 0.065739 -0.096686 
-0.246246 0.046014 -0.104679 
-0.266242 0.025706 -0.112001 
-0.283659 0.007201 -0.120452 
-0.290511 -0.004189 -0.134193 
-0.286382 -0.008253 -0.153611 
-0.071950 0.315851 0.123434 
-0.098589 0.289700 0.116469 
-0.119688 0.267604 0.107435 
-0.132171 0.251719 0.094943 
-0.142572 0.237353 0.081663 
-0.155444 0.221273 0.069542 
-0.163446 0.208672 0.055390 
-0.166808 0.199360 0.039232 
-0.177523 0.184894 0.026399 
-0.172717 0.181319 0.006579 
-0.177053 0.171340 -0.009099 
-0.194846 0.152013 -0.018477 
-0.208699 0.135483 -0.029550 
-0.216825 0.122958 -0.043232 
-0.219467 0.114237 -0.059497 
-0.218752 0.107823 -0.077395 
-0.211021 0.106201 -0.098783 
-0.201094 0.106037 -0.121373 
-0.183410 0.111101 -0.148000 
-0.296158 0.020794 -0.125697 
-0.309741 0.004836 -0.135917 
-0.315739 -0.005976 -0.149999 
-0.309795 -0.008770 -0.170376 
-0.056302 0.351048 0.105929 
-0.092952 0.317435 0.103072 
-0.118247 0.292148 0.095778 
-0.136358 0.272119 0.085654 
-0.149410 0.255781 0.073507 
-0.158011 0.242669 0.059524 
-0.164195 0.231304 0.044535 
-0.170279 0.220027 0.029543 
-0.175215 0.209579 0.014070 
-0.179272 0.199763 -0.001779 
-0.176783 0.194565 -0.020650 
-0.193355 0.175963 -0.030614 
-0.195753 0.167343 -0.047162 
-0.196990 0.159535 -0.064266 
-0.198170 0.151762 -0.081409 
-0.188743 0.151343 -0.103774 
-0.147339 0.172992 -0.142144 
-0.323023 0.017807 -0.140700 
-0.330151 0.006206 -0.154160 
-0.330147 -0.000547 -0.171378 
-0.076294 0.353462 0.084926 
-0.110789 0.321259 0.081472 
-0.131333 0.299314 0.072345 
-0.141981 0.284605 0.059095 
-0.152921 0.269720 0.046061 
-0.164661 0.254296 0.033477 
-0.167725 0.245135 0.017071 
-0.173189 0.234261 0.001772 
-0.176344 0.225047 -0.014563 
-0.176306 0.218107 -0.032382 
-0.164297 0.219645 -0.055893 
-0.160745 0.215146 -0.075508 
-0.153767 0.213036 -0.096844 
-0.136259 0.218289 -0.123433 
-0.122153 0.221074 -0.148551 
-0.344754 0.018217 -0.158199 
-0.349176 0.008459 -0.173028 
-0.085739 0.363572 0.059490 
-0.119563 0.331691 0.055993 
-0.138605 0.310742 0.046333 
-0.146881 0.297705 0.032061 
-0.157184 0.283221 0.018766 
-0.161575 0.273052 0.002863 
-0.163925 0.264367 -0.013958 
-0.169182 0.253588 -0.029423 
-0.171982 0.244586 -0.046015 
-0.139102 0.261136 -0.079617 
-0.139383 0.253862 -0.097604 
-0.141441 0.245314 -0.114746 
-0.104966 0.264117 -0.150888 
-0.353948 0.033933 -0.165116 
-0.361901 0.021715 -0.178035 
-0.356921 0.018429 -0.197969 
-0.115903 0.351353 0.024907 
-0.135335 0.329996 0.015470 
-0.139220 0.320113 -0.000835 
-0.149591 0.305493 -0.014148 
-0.152186 0.296579 -0.030984 
-0.153070 0.288910 -0.048621 
-0.137546 0.293134 -0.074067 
-0.133832 0.288743 -0.094031 
-0.104225 0.302997 -0.126639 
-0.374709 0.034897 -0.182989 
-0.372400 0.029806 -0.201471 
-0.383178 0.051120 -0.190316 
-0.393891 0.036902 -0.201607 
-0.382256 0.038377 -0.225326 
-0.403769 0.052100 -0.208155 
-0.415654 0.037026 -0.218666 
-0.417484 0.029087 -0.234799 
-0.343952 -0.397798 0.018397 
-0.351403 -0.390103 0.001413 
-0.345569 -0.385086 0.012391 
-0.361930 -0.382599 -0.012694 
-0.351540 -0.377348 -0.005912 
-0.379135 -0.373914 0.035757 
-0.148490 -0.409415 -0.380155 
-0.373443 -0.375153 -0.025893 
-0.360689 -0.369799 -0.021228 
-0.354036 -0.364730 -0.011075 
-0.379146 -0.360987 0.028194 
-0.155706 -0.398820 -0.380448 
-0.151953 -0.394583 -0.370132 
-0.376454 -0.367328 -0.046599 
-0.368399 -0.362207 -0.037769 
-0.363272 -0.357202 -0.026298 
-0.359481 -0.352232 -0.013566 
-0.381381 -0.348176 0.022679 
-0.142462 -0.398811 -0.436673 
-0.138317 -0.394626 -0.427004 
-0.170844 -0.392682 -0.387686 
-0.163883 -0.388232 -0.379986 
-0.158476 -0.383868 -0.371002 
-0.390608 -0.360025 -0.057389 
-0.377393 -0.354694 -0.053095 
-0.366772 -0.349478 -0.046559 
-0.361288 -0.344449 -0.035452 
-0.385524 -0.340385 0.002507 
-0.386289 -0.335456 0.019602 
-0.151054 -0.388457 -0.435890 
-0.142182 -0.383968 -0.429966 
-0.180627 -0.382140 -0.385999 
-0.173068 -0.377639 -0.378740 
-0.168307 -0.373284 -0.369194 
-0.390297 -0.347341 -0.064959 
-0.379911 -0.342136 -0.058191 
-0.371722 -0.337008 -0.049502 
-0.363845 -0.331887 -0.040526 
-0.363017 -0.326954 -0.025202 
-0.160755 -0.378100 -0.434269 
-0.151182 -0.373567 -0.428853 
-0.148495 -0.369392 -0.417944 
-0.181958 -0.366963 -0.377772 
-0.178901 -0.362659 -0.366807 
-0.404640 -0.340026 -0.075606 
-0.393393 -0.334796 -0.069552 
-0.384823 -0.329652 -0.061191 
-0.377581 -0.324541 -0.051655 
-0.372817 -0.319483 -0.039897 
-0.376380 -0.314588 -0.020626 
-0.186202 -0.372529 -0.433369 
-0.171611 -0.367725 -0.431782 
-0.161801 -0.363175 -0.426496 
-0.156818 -0.358854 -0.417384 
-0.187594 -0.356078 -0.379459 
-0.183598 -0.351704 -0.369250 
-0.187767 -0.347639 -0.352317 
-0.418722 -0.332688 -0.086526 
-0.406921 -0.327446 -0.080907 
-0.397422 -0.322274 -0.073339 
-0.389346 -0.317138 -0.064541 
-0.382658 -0.312027 -0.054513 
-0.377553 -0.306935 -0.043056 
-0.392866 -0.302158 -0.013329 
-0.174166 -0.369090 -0.474380 
-0.164265 -0.364579 -0.469256 
-0.192537 -0.361838 -0.434513 
-0.183332 -0.357301 -0.428666 
-0.174265 -0.352776 -0.422729 
-0.167343 -0.348344 -0.415105 
-0.182138 -0.344737 -0.390059 
-0.190379 -0.340803 -0.370023 
-0.187703 -0.336432 -0.358674 
-0.417283 -0.320009 -0.094980 
-0.408564 -0.314860 -0.086748 
-0.400218 -0.309717 -0.078195 
-0.392640 -0.304586 -0.068968 
-0.386227 -0.299467 -0.058705 
-0.382663 -0.294374 -0.045896 
-0.172157 -0.354110 -0.469145 
-0.168666 -0.349872 -0.459051 
-0.187846 -0.346501 -0.431224 
-0.186970 -0.342283 -0.418831 
-0.182341 -0.337906 -0.409328 
-0.181829 -0.333653 -0.396498 
-0.189295 -0.329616 -0.377153 
-0.207010 -0.325812 -0.349293 
-0.427725 -0.312584 -0.108958 
-0.417707 -0.307414 -0.101833 
-0.409387 -0.302276 -0.093279 
-0.400872 -0.297133 -0.084886 
-0.393947 -0.292008 -0.075114 
-0.390934 -0.286912 -0.061907 
-0.390496 -0.281809 -0.046357 
-0.342877 -0.250677 0.007992 
-0.327596 -0.245537 0.010276 
-0.317071 -0.240375 0.016916 
-0.303820 -0.235258 0.020960 
-0.300592 -0.230003 0.034470 
-0.268099 -0.209212 0.070143 
-0.207354 -0.348784 -0.461065 
-0.186228 -0.343819 -0.464340 
-0.179546 -0.339424 -0.456647 
-0.184518 -0.335417 -0.439886 
-0.194160 -0.331508 -0.419312 
-0.191105 -0.327153 -0.408546 
-0.188218 -0.322784 -0.397589 
-0.194637 -0.318632 -0.379104 
-0.208886 -0.314606 -0.354108 
-0.439194 -0.305185 -0.122057 
-0.428061 -0.300003 -0.115854 
-0.418886 -0.294856 -0.108034 
-0.411004 -0.289724 -0.099122 
-0.402297 -0.284581 -0.090904 
-0.396920 -0.279459 -0.079815 
-0.392392 -0.274326 -0.067942 
-0.386416 -0.269170 -0.057278 
-0.378599 -0.264003 -0.048199 
-0.357334 -0.258867 -0.051069 
-0.346206 -0.253738 -0.045026 
-0.332911 -0.248636 -0.040974 
-0.321179 -0.243539 -0.035565 
-0.314708 -0.238394 -0.025368 
-0.307967 -0.233242 -0.015388 
-0.299329 -0.228112 -0.007148 
-0.290559 -0.222984 0.000969 
-0.281373 -0.217865 0.008692 
-0.276227 -0.212652 0.020268 
-0.270188 -0.207444 0.031038 
-0.259975 -0.202343 0.037799 
-0.254100 -0.197114 0.048781 
-0.248665 -0.191854 0.060243 
-0.244158 -0.186544 0.072680 
-0.220261 -0.338285 -0.457314 
-0.206384 -0.333606 -0.454964 
-0.195957 -0.329057 -0.450042 
-0.194264 -0.324768 -0.438393 
-0.193840 -0.320488 -0.425680 
-0.196389 -0.316251 -0.410538 
-0.198161 -0.311955 -0.395883 
-0.204017 -0.307702 -0.377845 
-0.211546 -0.303423 -0.358285 
-0.440429 -0.292625 -0.128185 
-0.430393 -0.287470 -0.121073 
-0.421601 -0.282329 -0.112935 
-0.413124 -0.277190 -0.104532 
-0.406175 -0.272054 -0.094822 
-0.399751 -0.266911 -0.084637 
-0.389941 -0.261762 -0.077350 
-0.375072 -0.256636 -0.074491 
-0.361081 -0.251532 -0.070944 
-0.348112 -0.246444 -0.066564 
-0.336431 -0.241363 -0.061094 
-0.324399 -0.236299 -0.055982 
-0.311956 -0.231257 -0.051290 
-0.303144 -0.226169 -0.043331 
-0.294028 -0.221088 -0.035654 
-0.287363 -0.215954 -0.025704 
-0.282115 -0.210775 -0.014398 
-0.275448 -0.205618 -0.004380 
-0.272269 -0.200347 0.008987 
-0.261979 -0.195278 0.015617 
-0.250964 -0.190242 0.021522 
-0.241714 -0.185151 0.029112 
-0.233108 -0.180038 0.037326 
-0.226739 -0.174829 0.047758 
-0.221328 -0.169566 0.059183 
-0.218016 -0.164185 0.072773 
-0.243431 -0.327982 -0.445893 
-0.215919 -0.322921 -0.453751 
-0.204819 -0.318356 -0.449293 
-0.200005 -0.313951 -0.440030 
-0.198356 -0.309601 -0.428271 
-0.202278 -0.305333 -0.412071 
-0.206912 -0.301029 -0.395163 
-0.211316 -0.296670 -0.378283 
-0.213934 -0.292237 -0.362680 
-0.209444 -0.287683 -0.352696 
-0.195004 -0.283030 -0.350784 
-0.197312 -0.278512 -0.335188 
-0.190851 -0.273914 -0.326726 
-0.181270 -0.269303 -0.320853 
-0.177911 -0.264698 -0.309762 
-0.173314 -0.260077 -0.299664 
-0.169044 -0.255439 -0.289240 
-0.384799 -0.249276 -0.089044 
-0.372183 -0.244182 -0.084263 
-0.358151 -0.239121 -0.080776 
-0.346230 -0.234056 -0.075499 
-0.333345 -0.229021 -0.071126 
-0.320454 -0.224006 -0.066816 
-0.309546 -0.218969 -0.060773 
-0.300145 -0.213908 -0.053390 
-0.290795 -0.208850 -0.045969 
-0.286243 -0.203661 -0.034116 
-0.281145 -0.198468 -0.022711 
-0.274993 -0.193292 -0.012246 
-0.268477 -0.188117 -0.002087 
-0.258210 -0.183072 0.004519 
-0.247074 -0.178071 0.010263 
-0.234520 -0.173143 0.014593 
-0.223586 -0.168160 0.020450 
-0.213642 -0.163143 0.027247 
-0.208223 -0.157902 0.038526 
-0.201187 -0.152731 0.048235 
-0.199799 -0.147235 0.063677 
-0.253384 -0.312784 -0.431456 
-0.230127 -0.307921 -0.436044 
-0.219711 -0.303353 -0.430953 
-0.217015 -0.298920 -0.419918 
-0.215170 -0.294478 -0.408155 
-0.215157 -0.290033 -0.394877 
-0.215839 -0.285562 -0.380949 
-0.211974 -0.281021 -0.370551 
-0.200654 -0.276423 -0.366112 
-0.192658 -0.271850 -0.359018 
-0.180835 -0.267274 -0.355060 
-0.176279 -0.262708 -0.345156 
-0.167301 -0.258142 -0.338889 
-0.161629 -0.253563 -0.329864 
-0.155055 -0.248982 -0.321574 
-0.154797 -0.244332 -0.307884 
-0.147733 -0.239731 -0.299938 
-0.143419 -0.235087 -0.289601 
-0.138087 -0.230443 -0.280103 
-0.345833 -0.221692 -0.083096 
-0.332856 -0.216690 -0.078814 
-0.321103 -0.211679 -0.073499 
-0.309754 -0.206672 -0.067862 
-0.299767 -0.201639 -0.061028 
-0.292924 -0.196515 -0.051335 
-0.286569 -0.191365 -0.041166 
-0.282485 -0.186122 -0.028850 
-0.276290 -0.180938 -0.018445 
-0.267189 -0.175860 -0.010750 
-0.255762 -0.170886 -0.005275 
-0.244133 -0.165935 -0.000037 
-0.231398 -0.161053 0.004086 
-0.219152 -0.156167 0.008624 
-0.207452 -0.151270 0.013642 
-0.197780 -0.146274 0.020622 
-0.190895 -0.141120 0.030370 
-0.185626 -0.135857 0.041772 
-0.185833 -0.130223 0.058786 
0.287990 0.018021 0.112326 
0.293880 0.022973 0.122288 
-0.290345 -0.302278 -0.409738 
-0.265911 -0.297407 -0.414967 
-0.243920 -0.292636 -0.418528 
-0.233115 -0.288045 -0.413632 
-0.227111 -0.283508 -0.405038 
-0.223436 -0.278979 -0.394596 
-0.217985 -0.274425 -0.385507 
-0.208619 -0.269851 -0.379507 
-0.198186 -0.265284 -0.374383 
-0.188553 -0.260727 -0.368647 
-0.179285 -0.256177 -0.362636 
-0.171167 -0.251626 -0.355698 
-0.161025 -0.247094 -0.350445 
-0.148324 -0.242600 -0.347361 
-0.141082 -0.238057 -0.339744 
-0.130306 -0.233566 -0.335121 
-0.123630 -0.229017 -0.327030 
-0.116822 -0.224465 -0.319039 
-0.106937 -0.219978 -0.313710 
-0.104541 -0.215316 -0.301847 
-0.117648 -0.210209 -0.276210 
-0.323486 -0.199327 -0.078621 
-0.311802 -0.194347 -0.073281 
-0.303192 -0.189277 -0.065203 
-0.296826 -0.184124 -0.055078 
-0.289992 -0.178978 -0.045350 
-0.285785 -0.173713 -0.033160 
-0.277988 -0.168585 -0.024257 
-0.266183 -0.163639 -0.019116 
-0.254279 -0.158714 -0.014116 
-0.241894 -0.153830 -0.009624 
-0.231087 -0.148880 -0.003667 
-0.215290 -0.144225 -0.002594 
-0.203425 -0.139373 0.002220 
-0.192801 -0.134462 0.008210 
-0.182571 -0.129536 0.014558 
-0.177119 -0.124295 0.025676 
-0.172354 -0.118990 0.037538 
-0.173453 -0.113236 0.055439 
-0.181736 -0.106885 0.080880 
0.248605 0.017664 0.103433 
0.270828 0.019811 0.091924 
0.279409 0.024279 0.098242 
0.285044 0.029275 0.108493 
0.142271 0.109774 0.461302 
0.156826 0.113756 0.461386 
-0.317325 -0.291302 -0.395706 
-0.290477 -0.286443 -0.402567 
-0.265893 -0.281679 -0.407932 
-0.252199 -0.277047 -0.405130 
-0.242133 -0.272452 -0.399588 
-0.230554 -0.267865 -0.395256 
-0.222153 -0.263291 -0.388467 
-0.207994 -0.258737 -0.386258 
-0.199193 -0.254183 -0.379843 
-0.188452 -0.249647 -0.375004 
-0.176957 -0.245132 -0.370818 
-0.165909 -0.240629 -0.366314 
-0.153941 -0.236153 -0.362613 
-0.142603 -0.231685 -0.358443 
-0.133056 -0.227201 -0.352818 
-0.127417 -0.222645 -0.343912 
-0.117299 -0.218182 -0.338797 
-0.107239 -0.213729 -0.333665 
-0.102211 -0.209147 -0.324206 
-0.094905 -0.204621 -0.316699 
-0.088398 -0.200067 -0.308483 
-0.092587 -0.195134 -0.290759 
-0.319675 -0.181815 -0.073484 
-0.311453 -0.176717 -0.065021 
-0.303879 -0.171589 -0.055963 
-0.296422 -0.166451 -0.046782 
-0.292305 -0.161149 -0.034499 
-0.281035 -0.156179 -0.028806 
-0.267817 -0.151325 -0.024979 
-0.254895 -0.146477 -0.020940 
-0.240835 -0.141717 -0.018050 
-0.228569 -0.136877 -0.013519 
-0.215243 -0.132122 -0.010070 
-0.201104 -0.127446 -0.007487 
-0.187682 -0.122750 -0.004285 
-0.177218 -0.117872 0.001775 
-0.169782 -0.112781 0.010832 
-0.165122 -0.107474 0.022704 
-0.160392 -0.102151 0.034566 
-0.162691 -0.096233 0.053688 
0.245760 0.022974 0.081808 
0.262467 0.026028 0.077625 
0.274493 0.029862 0.079404 
0.280973 0.034689 0.088440 
0.277928 0.041317 0.110226 
0.103907 0.108626 0.443820 
0.118791 0.112604 0.443772 
0.130790 0.117154 0.447666 
0.141573 0.121947 0.453223 
0.152004 0.126802 0.459242 
-0.324860 -0.275298 -0.382892 
-0.295601 -0.270543 -0.391569 
-0.274837 -0.265881 -0.393999 
-0.258807 -0.261265 -0.392933 
-0.241107 -0.256691 -0.393266 
-0.228043 -0.252132 -0.390087 
-0.214883 -0.247596 -0.387048 
-0.205133 -0.243048 -0.381359 
-0.194657 -0.238517 -0.376279 
-0.182407 -0.234025 -0.372670 
-0.169677 -0.229562 -0.369511 
-0.156078 -0.225137 -0.367132 
-0.144958 -0.220686 -0.362774 
-0.134440 -0.216236 -0.357958 
-0.124049 -0.211795 -0.353072 
-0.114605 -0.207340 -0.347418 
-0.101664 -0.203001 -0.344783 
-0.097744 -0.198387 -0.334431 
-0.089688 -0.193903 -0.327627 
-0.084211 -0.189323 -0.318566 
-0.067284 -0.185195 -0.319599 
-0.056694 -0.180840 -0.315113 
-0.050947 -0.176280 -0.306321 
-0.049079 -0.171526 -0.293987 
-0.304567 -0.153800 -0.046672 
-0.298544 -0.148560 -0.036120 
-0.285802 -0.143678 -0.031760 
-0.271697 -0.138896 -0.028734 
-0.257169 -0.134167 -0.026187 
-0.240930 -0.129576 -0.025353 
-0.227041 -0.124871 -0.022384 
-0.214183 -0.120123 -0.018501 
-0.198601 -0.115592 -0.017334 
-0.185116 -0.110943 -0.014218 
-0.172732 -0.106237 -0.010092 
-0.163139 -0.101331 -0.003247 
-0.157527 -0.096105 0.007578 
-0.155461 -0.090564 0.022039 
-0.154032 -0.084930 0.037254 
-0.159540 -0.078631 0.059719 
0.230915 0.030354 0.075747 
0.458660 -0.004567 -0.200074 
0.468374 -0.001073 -0.197410 
0.272570 0.040877 0.074260 
0.278029 0.045904 0.084628 
0.273151 0.052962 0.108804 
0.096533 0.115171 0.424413 
0.109431 0.119538 0.427164 
0.119334 0.124527 0.434011 
0.130038 0.129330 0.439706 
0.134032 0.135635 0.454897 
0.169454 0.141937 0.445973 
0.187482 0.144902 0.440728 
-0.262094 -0.245341 -0.383233 
-0.234396 -0.240934 -0.391362 
-0.219586 -0.236440 -0.389585 
-0.207304 -0.231937 -0.385889 
-0.196970 -0.227420 -0.380690 
-0.185365 -0.222939 -0.376550 
-0.174622 -0.218457 -0.371758 
-0.162772 -0.214015 -0.367912 
-0.148418 -0.209659 -0.366190 
-0.136009 -0.205278 -0.362935 
-0.122548 -0.200951 -0.360626 
-0.114164 -0.196479 -0.354097 
-0.104287 -0.192065 -0.348852 
-0.095168 -0.187632 -0.342984 
-0.089225 -0.183076 -0.334382 
-0.077968 -0.178742 -0.330402 
-0.063493 -0.174573 -0.329307 
-0.054375 -0.170179 -0.323550 
-0.046938 -0.165707 -0.316310 
-0.042868 -0.161055 -0.306030 
-0.042568 -0.156174 -0.292271 
-0.053181 -0.150620 -0.268401 
-0.050320 -0.145792 -0.256714 
-0.058732 -0.140224 -0.234457 
-0.259954 -0.121831 -0.030949 
-0.242510 -0.117366 -0.031230 
-0.226046 -0.112878 -0.030710 
-0.211974 -0.108255 -0.028010 
-0.198778 -0.103594 -0.024544 
-0.182669 -0.099189 -0.023997 
-0.169747 -0.094564 -0.020428 
-0.159982 -0.089695 -0.013797 
-0.151553 -0.084716 -0.005848 
-0.147332 -0.079357 0.006345 
-0.146601 -0.073648 0.022153 
-0.147713 -0.067718 0.039977 
-0.155620 -0.061061 0.064978 
0.200766 0.034416 0.071450 
0.211605 0.038559 0.075198 
0.237192 0.039986 0.060112 
0.460469 0.004445 -0.209058 
0.467992 0.008321 -0.203589 
0.271272 0.051760 0.068306 
0.272660 0.057602 0.084004 
0.268932 0.064521 0.106623 
0.483372 0.026791 -0.162194 
0.492946 0.030269 -0.159403 
0.086031 0.122355 0.409407 
0.096961 0.127133 0.414903 
0.107676 0.131942 0.420652 
0.118079 0.136806 0.426793 
0.129587 0.141405 0.431346 
0.140165 0.146200 0.437155 
0.153754 0.150266 0.438622 
0.167573 0.154238 0.439646 
0.179844 0.158547 0.442797 
-0.246495 -0.229603 -0.388185 
-0.227331 -0.225206 -0.389746 
-0.211587 -0.220788 -0.388744 
-0.198115 -0.216353 -0.386030 
-0.185796 -0.211914 -0.382462 
-0.175959 -0.207427 -0.376941 
-0.163521 -0.203028 -0.373572 
-0.152659 -0.198599 -0.368967 
-0.141711 -0.194189 -0.364474 
-0.126873 -0.189936 -0.363280 
-0.116114 -0.185558 -0.358740 
-0.106573 -0.181143 -0.353207 
-0.095940 -0.176785 -0.348635 
-0.090151 -0.172217 -0.339918 
-0.080119 -0.167847 -0.334871 
-0.066133 -0.163692 -0.333329 
-0.056427 -0.159338 -0.328088 
-0.047949 -0.154925 -0.321780 
-0.041779 -0.150381 -0.313412 
-0.039151 -0.145612 -0.301813 
-0.044941 -0.140279 -0.282452 
-0.039240 -0.135642 -0.273476 
-0.041747 -0.130427 -0.256853 
-0.041295 -0.125371 -0.242847 
-0.052616 -0.119402 -0.217632 
-0.226732 -0.100800 -0.037411 
-0.210298 -0.096403 -0.036972 
-0.196487 -0.091831 -0.034119 
-0.182865 -0.087272 -0.031165 
-0.168668 -0.082791 -0.028854 
-0.155894 -0.078214 -0.025224 
-0.141324 -0.073827 -0.023452 
-0.132298 -0.068942 -0.016208 
-0.124639 -0.063925 -0.007589 
-0.127228 -0.057860 0.011506 
-0.143558 -0.050292 0.044921 
0.192734 0.040634 0.056555 
0.205556 0.044399 0.057843 
0.216886 0.048406 0.060910 
0.448146 0.010791 -0.215061 
0.459400 0.013958 -0.214321 
0.465687 0.018068 -0.207270 
0.267131 0.063195 0.066063 
0.260117 0.070797 0.092755 
0.475314 0.032341 -0.173844 
0.487687 0.035215 -0.174753 
0.493471 0.039466 -0.166932 
0.086229 0.134349 0.400273 
0.096077 0.139342 0.407221 
0.106716 0.144147 0.413057 
0.119167 0.148519 0.416338 
0.130328 0.153165 0.421343 
0.140048 0.158138 0.428329 
0.149230 0.163234 0.436058 
0.159777 0.167989 0.441820 
-0.241178 -0.213774 -0.385165 
-0.219677 -0.209522 -0.388608 
-0.203291 -0.205187 -0.388159 
-0.190955 -0.200767 -0.384575 
-0.178664 -0.196367 -0.381013 
-0.168356 -0.191917 -0.375896 
-0.158258 -0.187472 -0.370640 
-0.147707 -0.183055 -0.365790 
-0.134843 -0.178750 -0.362905 
-0.122081 -0.174464 -0.360004 
-0.110183 -0.170163 -0.356439 
-0.101364 -0.165729 -0.350302 
-0.094849 -0.161182 -0.342198 
-0.084047 -0.156861 -0.337797 
-0.073884 -0.152520 -0.332880 
-0.063710 -0.148193 -0.328010 
-0.053717 -0.143866 -0.323014 
-0.047079 -0.139336 -0.315046 
-0.044554 -0.134526 -0.303351 
-0.042776 -0.129638 -0.290903 
-0.036540 -0.125040 -0.282459 
-0.031402 -0.120353 -0.272978 
-0.030211 -0.115348 -0.259781 
-0.030930 -0.110156 -0.244693 
-0.037581 -0.104428 -0.223862 
-0.049644 -0.098162 -0.197648 
-0.194536 -0.080097 -0.043331 
-0.180476 -0.075620 -0.040821 
-0.114357 -0.076042 -0.089287 
-0.096086 -0.072177 -0.091507 
-0.086278 -0.067530 -0.085477 
-0.071778 -0.063371 -0.084171 
-0.063270 -0.058619 -0.076920 
-0.060804 -0.053219 -0.063527 
-0.051299 -0.048564 -0.057259 
-0.053278 -0.042614 -0.039143 
-0.018018 0.083557 0.289763 
0.195669 0.050923 0.045358 
0.204107 0.055462 0.052063 
0.218912 0.058775 0.050776 
0.447765 0.020186 -0.221190 
0.457082 0.023703 -0.217981 
0.461962 0.028102 -0.209125 
0.262307 0.074789 0.064689 
0.466602 0.038021 -0.184603 
0.480394 0.040575 -0.187300 
0.487248 0.044588 -0.180938 
0.491553 0.049167 -0.171164 
0.085994 0.146397 0.391754 
0.096036 0.151328 0.398411 
0.106311 0.156194 0.404723 
0.116744 0.161012 0.410784 
0.127249 0.165799 0.416707 
0.137192 0.170711 0.423384 
0.146858 0.175683 0.430426 
0.176081 0.183045 0.430191 
0.194001 0.185780 0.425053 
0.209461 0.189094 0.423298 
-0.214807 -0.193783 -0.385282 
-0.199243 -0.189483 -0.384205 
-0.185178 -0.185161 -0.382020 
-0.173092 -0.180788 -0.378313 
-0.161800 -0.176401 -0.374012 
-0.150954 -0.172011 -0.369391 
-0.141497 -0.167569 -0.363657 
-0.126812 -0.163397 -0.362323 
-0.118457 -0.158928 -0.355741 
-0.108689 -0.154538 -0.350369 
-0.100950 -0.150043 -0.343286 
-0.090158 -0.145731 -0.338843 
-0.080150 -0.141385 -0.333760 
-0.071426 -0.136969 -0.327582 
-0.063387 -0.132511 -0.320812 
-0.056533 -0.127972 -0.312990 
-0.048960 -0.123482 -0.305804 
-0.041236 -0.119003 -0.298754 
-0.036103 -0.114322 -0.289337 
-0.030824 -0.109641 -0.280017 
-0.029004 -0.104660 -0.267451 
-0.025614 -0.099782 -0.256267 
-0.026580 -0.094497 -0.240908 
-0.029866 -0.088954 -0.223213 
-0.036724 -0.083016 -0.201926 
-0.164667 -0.065323 -0.063407 
-0.109568 -0.065031 -0.101082 
-0.091114 -0.061264 -0.103503 
-0.081745 -0.056602 -0.097096 
-0.069310 -0.052277 -0.093765 
-0.061862 -0.047426 -0.085489 
-0.051081 -0.042948 -0.080579 
-0.044026 -0.038052 -0.071905 
-0.037341 -0.033106 -0.062832 
-0.029062 -0.028346 -0.055390 
-0.027741 -0.022715 -0.040669 
-0.030502 -0.016519 -0.021527 
-0.025894 -0.011225 -0.010036 
-0.012097 0.094527 0.274133 
0.191939 0.062413 0.042402 
0.206138 0.065831 0.041982 
0.437669 0.026123 -0.230054 
0.446684 0.029697 -0.226419 
0.454054 0.033594 -0.220742 
0.454808 0.038872 -0.206605 
0.457134 0.043860 -0.194370 
0.472429 0.046070 -0.198915 
0.479737 0.049978 -0.193161 
0.485196 0.054298 -0.184970 
0.076862 0.153226 0.375079 
0.085803 0.158398 0.383205 
0.095920 0.163292 0.389735 
0.497382 0.074011 -0.138717 
0.117423 0.172738 0.400959 
0.129397 0.177133 0.404807 
0.139642 0.181940 0.411005 
0.150049 0.186693 0.416941 
0.161235 0.191228 0.421729 
0.175494 0.194927 0.422046 
0.189275 0.198707 0.422922 
-0.215709 -0.177803 -0.377365 
-0.195917 -0.173731 -0.379665 
-0.181256 -0.169479 -0.377973 
-0.168663 -0.165161 -0.374685 
-0.157051 -0.160816 -0.370656 
-0.146583 -0.156429 -0.365730 
-0.137712 -0.151967 -0.359509 
-0.128281 -0.147543 -0.353773 
-0.119935 -0.143062 -0.347142 
-0.111198 -0.138608 -0.340853 
-0.099503 -0.134353 -0.337126 
-0.088100 -0.130097 -0.333200 
-0.077817 -0.125782 -0.328346 
-0.069026 -0.121372 -0.322213 
-0.058969 -0.117062 -0.317220 
-0.050771 -0.112621 -0.310596 
-0.043850 -0.108079 -0.302826 
-0.035896 -0.103620 -0.295985 
-0.030764 -0.098920 -0.286560 
-0.027548 -0.094037 -0.275325 
-0.026852 -0.088901 -0.261673 
-0.024615 -0.083871 -0.249366 
-0.025033 -0.078556 -0.234461 
-0.027845 -0.072958 -0.217146 
-0.031360 -0.067229 -0.198992 
-0.054046 -0.059427 -0.162059 
-0.061521 -0.053090 -0.139532 
-0.062394 -0.047395 -0.123274 
-0.058507 -0.042189 -0.111606 
-0.052166 -0.037244 -0.102331 
-0.047787 -0.032055 -0.091046 
-0.042878 -0.026909 -0.080241 
-0.032211 -0.022464 -0.075292 
-0.023672 -0.017762 -0.068183 
-0.016704 -0.012856 -0.059444 
-0.008595 -0.008097 -0.051885 
-0.005801 -0.002608 -0.038694 
0.000817 0.002377 -0.029497 
0.014441 0.006367 -0.027817 
0.018279 0.011757 -0.015610 
0.014795 0.018271 0.004680 
0.011869 0.030891 0.041387 
0.031949 0.033860 0.035858 
0.042554 0.038294 0.040818 
0.049702 0.043286 0.049672 
0.049455 0.049538 0.067035 
-0.036761 0.097525 0.257828 
-0.021278 0.101441 0.258037 
0.166859 0.071873 0.048382 
0.185617 0.074427 0.042612 
0.425408 0.032499 -0.236270 
0.435965 0.035764 -0.234492 
0.444382 0.039447 -0.230105 
0.452264 0.043231 -0.225072 
0.456616 0.047769 -0.215559 
0.463195 0.051837 -0.208859 
0.470690 0.055703 -0.203340 
0.477002 0.059832 -0.196288 
0.479690 0.064803 -0.184449 
0.076270 0.165295 0.367121 
0.484110 0.075073 -0.159218 
0.494246 0.078337 -0.157155 
0.500000 0.082658 -0.149195 
0.114828 0.185237 0.395667 
0.125714 0.189888 0.401032 
0.136306 0.194597 0.406761 
0.146432 0.199415 0.413103 
0.157069 0.204084 0.418691 
-0.195319 -0.157813 -0.372917 
-0.178779 -0.153703 -0.372744 
-0.166259 -0.149411 -0.369396 
-0.155945 -0.145014 -0.364293 
-0.146976 -0.140548 -0.358105 
-0.140058 -0.135958 -0.350215 
-0.134592 -0.131269 -0.341089 
-0.125432 -0.126821 -0.335075 
-0.111594 -0.122708 -0.333095 
-0.097254 -0.118664 -0.331633 
-0.085244 -0.114477 -0.328231 
-0.072986 -0.110331 -0.325107 
-0.062174 -0.106092 -0.320766 
-0.053368 -0.101703 -0.314679 
-0.045456 -0.097243 -0.307804 
-0.039944 -0.092571 -0.298755 
-0.034864 -0.087849 -0.289280 
-0.028562 -0.083227 -0.280893 
-0.026950 -0.078145 -0.268128 
-0.023635 -0.073200 -0.256870 
-0.025950 -0.067655 -0.240228 
-0.026409 -0.062249 -0.225203 
-0.027782 -0.056699 -0.209175 
-0.034462 -0.050511 -0.187875 
-0.043243 -0.044002 -0.164302 
-0.043307 -0.038410 -0.149035 
-0.045614 -0.032506 -0.131419 
-0.040236 -0.027479 -0.121313 
-0.036968 -0.022173 -0.109042 
-0.033793 -0.016827 -0.096599 
-0.030036 -0.011528 -0.084672 
-0.023363 -0.006593 -0.075678 
-0.012600 -0.002210 -0.070912 
-0.001572 0.002120 -0.066468 
0.004358 0.007161 -0.056691 
0.018151 0.011066 -0.055245 
0.023904 0.016136 -0.045272 
0.027710 0.021517 -0.033154 
0.030330 0.027110 -0.019668 
0.032671 0.032783 -0.005781 
0.072003 0.032494 -0.032765 
0.038969 0.043975 0.020499 
0.050200 0.048256 0.024676 
0.059675 0.052819 0.030791 
0.066142 0.057901 0.040322 
0.067640 0.063883 0.055614 
0.064735 0.070714 0.076149 
-0.045910 0.097635 0.223154 
-0.030703 0.101569 0.223737 
-0.024990 0.107287 0.235504 
-0.016552 0.112493 0.244057 
0.166970 0.082701 0.040691 
0.407728 0.039995 -0.235961 
0.423377 0.042226 -0.240311 
0.434009 0.045450 -0.238613 
0.443292 0.048935 -0.235305 
0.446797 0.053664 -0.224764 
0.454926 0.057391 -0.220031 
0.463003 0.061119 -0.215257 
0.467716 0.065612 -0.206164 
0.470825 0.070495 -0.194936 
0.467828 0.076859 -0.175610 
0.480116 0.079609 -0.176308 
0.488843 0.083190 -0.172371 
0.494419 0.087542 -0.164232 
0.496946 0.092679 -0.151927 
0.116284 0.196686 0.384836 
0.127293 0.201271 0.389990 
0.135417 0.206607 0.399109 
0.145033 0.211545 0.406150 
0.158420 0.215439 0.407836 
0.171564 0.219361 0.409761 
0.183240 0.223661 0.413693 
-0.199741 -0.141531 -0.362079 
-0.182737 -0.137494 -0.362253 
-0.172639 -0.133063 -0.356873 
-0.166110 -0.128408 -0.348569 
-0.163742 -0.123463 -0.336775 
-0.126813 -0.110725 -0.326449 
-0.110079 -0.106872 -0.326943 
-0.091483 -0.103216 -0.329178 
-0.077968 -0.099191 -0.327116 
-0.068783 -0.094823 -0.321313 
-0.057907 -0.090613 -0.317035 
-0.049191 -0.086223 -0.310867 
-0.043158 -0.081585 -0.302287 
-0.035831 -0.077065 -0.294864 
-0.032116 -0.072183 -0.284119 
-0.030115 -0.067105 -0.271728 
-0.025823 -0.062236 -0.261392 
-0.026149 -0.056850 -0.246659 
-0.026020 -0.051471 -0.232238 
-0.032563 -0.045292 -0.211324 
-0.032686 -0.039777 -0.196376 
-0.037746 -0.033630 -0.176511 
-0.037069 -0.028107 -0.162061 
-0.034592 -0.022767 -0.149274 
-0.036252 -0.016867 -0.132285 
-0.029316 -0.012033 -0.123763 
-0.023377 -0.007059 -0.114215 
-0.019524 -0.001788 -0.102509 
-0.015782 0.003524 -0.090620 
-0.010833 0.008690 -0.079910 
-0.003342 0.013505 -0.071801 
0.008593 0.017661 -0.068357 
0.018785 0.022058 -0.063131 
0.025828 0.026930 -0.054575 
0.050478 0.029020 -0.064972 
0.066777 0.032352 -0.066588 
0.079998 0.036138 -0.064978 
0.090959 0.040269 -0.060967 
0.099437 0.044807 -0.054248 
0.104654 0.049910 -0.043882 
0.105410 0.055826 -0.028423 
0.069444 0.068457 0.029024 
0.074932 0.073721 0.039647 
0.074825 0.080058 0.056802 
0.071893 0.086994 0.077409 
-0.024444 0.112259 0.208181 
-0.015223 0.117266 0.215684 
0.143054 0.092083 0.044851 
0.165510 0.093816 0.034921 
0.410426 0.048781 -0.245785 
0.422026 0.051803 -0.245183 
0.430275 0.055517 -0.240533 
0.438870 0.059144 -0.236343 
0.444893 0.063336 -0.228958 
0.453816 0.066871 -0.225229 
0.459459 0.071153 -0.217355 
0.465836 0.075270 -0.210401 
0.467441 0.080537 -0.197245 
0.473063 0.084865 -0.189232 
0.481249 0.088567 -0.184575 
0.487449 0.092758 -0.177306 
0.490818 0.097681 -0.166225 
0.102505 0.204604 0.374600 
0.113555 0.209182 0.379756 
0.125537 0.213491 0.383581 
0.133487 0.218873 0.392922 
0.144698 0.223358 0.397723 
0.156100 0.227769 0.402201 
0.165685 0.232676 0.409199 
-0.117365 -0.095436 -0.327074 
-0.103217 -0.091442 -0.325393 
-0.085282 -0.087817 -0.327105 
-0.072826 -0.083745 -0.324140 
-0.064269 -0.079331 -0.317787 
-0.057479 -0.074750 -0.309868 
-0.047360 -0.070495 -0.304934 
-0.040561 -0.065914 -0.297021 
-0.036638 -0.061027 -0.286464 
-0.031448 -0.056256 -0.277020 
-0.029602 -0.051101 -0.264431 
-0.030533 -0.045600 -0.249150 
-0.027570 -0.040501 -0.237420 
-0.031724 -0.034530 -0.218839 
-0.034495 -0.028658 -0.201404 
-0.038056 -0.022627 -0.183042 
-0.034229 -0.017473 -0.171709 
-0.031618 -0.012135 -0.159117 
-0.034492 -0.006035 -0.141005 
-0.029388 -0.000958 -0.130692 
-0.024861 0.004216 -0.119751 
-0.019726 0.009325 -0.109371 
-0.013852 0.014344 -0.099701 
-0.007399 0.019290 -0.090593 
0.001543 0.023869 -0.084046 
0.013622 0.027956 -0.080803 
0.021196 0.032729 -0.072867 
0.044120 0.035032 -0.081273 
0.060781 0.038269 -0.083211 
0.075035 0.041853 -0.082693 
0.087667 0.045672 -0.080517 
0.098746 0.049730 -0.076715 
0.107695 0.054146 -0.070608 
0.115657 0.058732 -0.063419 
0.120684 0.063858 -0.052924 
0.122440 0.069618 -0.038663 
0.109957 0.078138 -0.007988 
0.076434 0.090893 0.047350 
0.076006 0.097386 0.064956 
0.331748 0.052315 -0.217751 
0.347544 0.054689 -0.221441 
0.356198 0.058492 -0.216784 
0.389089 0.057136 -0.241286 
0.406813 0.058867 -0.247917 
0.418287 0.061891 -0.247128 
0.427298 0.065432 -0.243397 
0.434476 0.069372 -0.237434 
0.443028 0.072993 -0.233197 
0.451524 0.076613 -0.228926 
0.456734 0.081006 -0.220506 
0.460393 0.085787 -0.210065 
0.466391 0.090016 -0.202580 
0.473151 0.094062 -0.196071 
0.479008 0.098338 -0.188374 
0.483454 0.102987 -0.178784 
0.082274 0.214227 0.372924 
0.093892 0.218683 0.377444 
0.106483 0.222851 0.380580 
0.119506 0.226870 0.383039 
0.125491 0.232819 0.395124 
-0.138212 -0.082741 -0.315633 
-0.110608 -0.079968 -0.325411 
-0.094247 -0.076238 -0.325689 
-0.082207 -0.072135 -0.322301 
-0.071430 -0.067928 -0.317858 
-0.062263 -0.063573 -0.312026 
-0.055206 -0.059005 -0.304321 
-0.048600 -0.054385 -0.296199 
-0.041371 -0.049827 -0.288629 
-0.036280 -0.045025 -0.279088 
-0.033922 -0.039892 -0.266976 
-0.031499 -0.034736 -0.254846 
-0.032947 -0.029079 -0.238992 
-0.033326 -0.023503 -0.224014 
-0.036271 -0.017553 -0.206458 
-0.039111 -0.011555 -0.188838 
-0.033791 -0.006581 -0.178983 
-0.030212 -0.001355 -0.167383 
-0.031721 0.004605 -0.150691 
-0.028505 0.009950 -0.138551 
-0.023444 0.015056 -0.128189 
-0.017749 0.020086 -0.118419 
-0.011127 0.024989 -0.109559 
-0.004195 0.029853 -0.100994 
0.008073 0.033884 -0.097939 
0.017119 0.038406 -0.091589 
0.031477 0.042051 -0.090851 
0.051428 0.044722 -0.096155 
0.066017 0.048227 -0.095928 
0.077466 0.052234 -0.092429 
0.092802 0.055531 -0.093218 
0.102951 0.059712 -0.088454 
0.113266 0.063847 -0.083913 
0.121565 0.068342 -0.077172 
0.128805 0.073035 -0.069251 
0.133646 0.078196 -0.058604 
0.134613 0.084142 -0.043483 
0.307822 0.055591 -0.226320 
0.329658 0.056767 -0.236744 
0.343250 0.059550 -0.237808 
0.355690 0.062530 -0.237639 
0.362385 0.066705 -0.230750 
0.387339 0.066893 -0.245719 
0.404364 0.068710 -0.251466 
0.415305 0.071826 -0.250007 
0.423189 0.075614 -0.244878 
0.431183 0.079369 -0.239905 
0.439403 0.083061 -0.235238 
0.446395 0.087039 -0.229053 
0.451942 0.091370 -0.221042 
0.458086 0.095562 -0.213764 
0.464855 0.099602 -0.207278 
0.471767 0.103606 -0.200976 
0.475455 0.108450 -0.190453 
-0.126267 -0.067641 -0.318355 
-0.106977 -0.064216 -0.321052 
-0.091753 -0.060435 -0.320361 
-0.078576 -0.056478 -0.317971 
-0.069146 -0.052148 -0.312336 
-0.062302 -0.047541 -0.304412 
-0.055169 -0.042963 -0.296737 
-0.047722 -0.038417 -0.289338 
-0.042638 -0.033590 -0.279772 
-0.039017 -0.028570 -0.268817 
-0.036383 -0.023404 -0.256884 
-0.037389 -0.017746 -0.241459 
-0.037739 -0.012123 -0.226524 
-0.041740 -0.005968 -0.207985 
-0.040864 -0.000406 -0.193951 
-0.035027 0.004508 -0.184614 
-0.031069 0.009700 -0.173411 
-0.031850 0.015602 -0.157483 
-0.028716 0.020979 -0.145300 
-0.023672 0.026096 -0.134951 
-0.017650 0.031081 -0.125540 
-0.010684 0.035929 -0.117057 
-0.000735 0.040307 -0.111612 
0.011200 0.044348 -0.108249 
0.022833 0.048415 -0.104636 
0.037711 0.051907 -0.104490 
0.055923 0.054780 -0.107985 
0.067514 0.058750 -0.104599 
0.083844 0.061847 -0.106367 
0.094199 0.065979 -0.101810 
0.107626 0.069523 -0.100651 
0.117240 0.073752 -0.095394 
0.125897 0.078152 -0.089108 
0.133636 0.082727 -0.081809 
0.270311 0.061565 -0.219898 
0.299078 0.061420 -0.237677 
0.320661 0.062609 -0.247620 
0.336722 0.064855 -0.251453 
0.347253 0.068219 -0.249015 
0.358579 0.071384 -0.247577 
0.367585 0.075031 -0.243474 
0.384742 0.076832 -0.249136 
0.398406 0.079355 -0.250794 
0.409076 0.082523 -0.248954 
0.418088 0.086053 -0.245161 
0.426353 0.089746 -0.240490 
0.435602 0.093188 -0.237071 
0.442373 0.097226 -0.230594 
0.447428 0.101695 -0.221949 
0.455314 0.105455 -0.216871 
0.462478 0.109395 -0.210889 
0.467518 0.113891 -0.202163 
0.471253 0.118751 -0.191695 
0.460694 0.127519 -0.162351 
0.226287 0.198141 0.164372 
0.235279 0.202666 0.170784 
0.244091 0.207235 0.177418 
-0.116533 -0.052419 -0.319219 
-0.101783 -0.048608 -0.318043 
-0.090054 -0.044502 -0.314316 
-0.078598 -0.040386 -0.310402 
-0.068404 -0.036144 -0.305418 
-0.061111 -0.031572 -0.297863 
-0.056426 -0.026681 -0.287942 
-0.050631 -0.021910 -0.278990 
-0.044722 -0.017143 -0.270114 
-0.042414 -0.011898 -0.257873 
-0.042350 -0.006324 -0.243454 
-0.043371 -0.000559 -0.227897 
-0.047536 0.005694 -0.209221 
-0.042625 0.010733 -0.199050 
-0.037448 0.015751 -0.189091 
-0.033845 0.021017 -0.177558 
-0.033755 0.026837 -0.162515 
-0.030400 0.032204 -0.150575 
-0.025154 0.037304 -0.140446 
-0.018688 0.042225 -0.131499 
-0.011246 0.046997 -0.123515 
0.002794 0.050678 -0.122255 
0.013233 0.054929 -0.117389 
0.024924 0.058949 -0.113863 
0.042228 0.061961 -0.116266 
0.057510 0.065273 -0.116697 
0.073422 0.068422 -0.117922 
0.084071 0.072493 -0.113648 
0.098728 0.075789 -0.113750 
0.109237 0.079836 -0.109457 
0.119126 0.083986 -0.104532 
0.128419 0.088239 -0.098987 
0.259743 0.067816 -0.229475 
0.290567 0.067198 -0.249274 
0.309945 0.068807 -0.256537 
0.323685 0.071529 -0.257589 
0.340071 0.073631 -0.261809 
0.351296 0.076800 -0.260215 
0.361199 0.080234 -0.257154 
0.369011 0.084122 -0.251682 
0.377725 0.087794 -0.247300 
0.391178 0.090343 -0.248631 
0.402549 0.093338 -0.247574 
0.413572 0.096384 -0.246181 
0.420914 0.100303 -0.240350 
0.429420 0.103928 -0.235968 
0.436452 0.107915 -0.229780 
0.444190 0.111718 -0.224483 
0.451645 0.115588 -0.218844 
0.458125 0.119713 -0.211972 
0.461861 0.124581 -0.201551 
0.464066 0.129893 -0.189074 
0.465627 0.135424 -0.175651 
0.471276 0.139845 -0.167516 
0.476456 0.144412 -0.158730 
0.481168 0.149129 -0.149276 
0.483383 0.154603 -0.136386 
0.253595 0.229540 0.193618 
0.255456 0.236221 0.209848 
-0.142383 -0.038748 -0.303421 
-0.115171 -0.036323 -0.312863 
-0.100126 -0.032593 -0.311944 
-0.087687 -0.028593 -0.308833 
-0.077768 -0.024314 -0.303551 
-0.069704 -0.019817 -0.296640 
-0.063154 -0.015129 -0.288369 
-0.056512 -0.010446 -0.280163 
-0.053271 -0.005306 -0.268824 
-0.052059 0.000134 -0.255546 
-0.047511 0.005150 -0.245277 
-0.051245 0.011355 -0.227185 
-0.051092 0.017067 -0.212597 
-0.045669 0.022049 -0.202919 
-0.040809 0.027131 -0.192662 
-0.038634 0.032642 -0.179756 
-0.036791 0.038239 -0.166437 
-0.032084 0.043418 -0.155842 
-0.027674 0.048665 -0.144901 
-0.020004 0.053395 -0.137166 
-0.009872 0.057713 -0.131909 
0.003250 0.061504 -0.129727 
0.013547 0.065755 -0.124733 
0.035827 0.067860 -0.132158 
0.048290 0.071650 -0.129598 
0.059133 0.075710 -0.125413 
0.073016 0.079179 -0.124497 
0.088120 0.082374 -0.124985 
0.099413 0.086262 -0.121500 
0.109859 0.090294 -0.117158 
0.120026 0.094364 -0.112557 
0.129233 0.098613 -0.106942 
0.273225 0.074807 -0.251036 
0.293725 0.076176 -0.259325 
0.312808 0.077756 -0.266257 
0.325675 0.080610 -0.266335 
0.340280 0.083036 -0.268515 
0.350328 0.086436 -0.265567 
0.359597 0.089992 -0.261768 
0.368925 0.093517 -0.258082 
0.374922 0.097815 -0.250496 
0.384582 0.101237 -0.247265 
0.396344 0.104126 -0.246619 
0.406612 0.107348 -0.244253 
0.415217 0.110964 -0.239919 
0.422890 0.114805 -0.234470 
0.431742 0.118334 -0.230502 
0.438924 0.122288 -0.224480 
0.448569 0.125579 -0.221579 
0.450772 0.130872 -0.209248 
0.455772 0.135431 -0.200414 
0.462408 0.139548 -0.193660 
0.463895 0.145130 -0.180174 
0.469355 0.149612 -0.171805 
0.473771 0.154411 -0.162016 
0.475088 0.160153 -0.148022 
0.248851 0.234525 0.173354 
0.252921 0.240516 0.186404 
0.256345 0.246744 0.200432 
0.258991 0.253258 0.215645 
0.260200 0.260281 0.232992 
-0.306173 -0.008863 -0.169626 
-0.135152 -0.023142 -0.302059 
-0.112799 -0.020289 -0.307357 
-0.099891 -0.016346 -0.304572 
-0.089183 -0.012152 -0.299914 
-0.078861 -0.007924 -0.294953 
-0.070119 -0.003501 -0.288609 
-0.064053 0.001277 -0.279854 
-0.059578 0.006285 -0.269622 
-0.056509 0.011510 -0.258048 
-0.056876 0.017256 -0.243217 
-0.060600 0.023543 -0.225124 
-0.056185 0.028679 -0.214531 
-0.050877 0.033700 -0.204734 
-0.047210 0.038992 -0.193326 
-0.045296 0.044587 -0.180160 
-0.038878 0.049491 -0.171284 
-0.030041 0.054006 -0.164759 
-0.022743 0.058773 -0.156724 
-0.019192 0.064186 -0.144944 
-0.007700 0.068243 -0.141075 
0.003268 0.072371 -0.136731 
0.019324 0.075561 -0.137633 
0.032417 0.079243 -0.135618 
0.049147 0.082211 -0.137462 
0.063506 0.085573 -0.136974 
0.074009 0.089638 -0.132529 
0.086330 0.093327 -0.130063 
0.098224 0.097070 -0.127217 
0.108884 0.101038 -0.123108 
0.119679 0.104958 -0.119197 
0.252727 0.083119 -0.249533 
0.277987 0.083475 -0.262820 
0.294956 0.085507 -0.267182 
0.310633 0.087756 -0.270267 
0.324536 0.090341 -0.271499 
0.339204 0.092702 -0.273731 
0.350363 0.095821 -0.272062 
0.359793 0.099316 -0.268464 
0.367321 0.103249 -0.262684 
0.374531 0.107254 -0.256542 
0.379987 0.111690 -0.248317 
0.388051 0.115484 -0.243191 
0.398210 0.118736 -0.240622 
0.410250 0.121477 -0.240409 
0.416661 0.125655 -0.233379 
0.426354 0.128963 -0.230406 
0.433075 0.133051 -0.223776 
0.440159 0.137041 -0.217599 
0.446843 0.141141 -0.210920 
0.450250 0.146169 -0.200039 
0.456998 0.150268 -0.193397 
0.455377 0.156801 -0.175858 
0.292036 0.211104 0.054127 
0.303203 0.214645 0.056868 
0.314578 0.218095 0.059256 
0.246198 0.246066 0.168867 
0.250344 0.252059 0.181793 
0.254079 0.258218 0.195370 
0.257531 0.264507 0.209437 
0.258109 0.271775 0.227610 
-0.323220 -0.001050 -0.177246 
-0.299057 0.002043 -0.182688 
-0.285038 0.006306 -0.179620 
-0.141032 -0.005910 -0.289342 
-0.114474 -0.003688 -0.298294 
-0.100238 0.000057 -0.296651 
-0.087336 0.003947 -0.293913 
-0.080095 0.008587 -0.286181 
-0.075082 0.013544 -0.276429 
-0.070163 0.018530 -0.266551 
-0.065212 0.023528 -0.256662 
-0.070168 0.030022 -0.237572 
-0.066743 0.035315 -0.226101 
-0.062161 0.040455 -0.215651 
-0.059471 0.045914 -0.203360 
-0.055998 0.051278 -0.191737 
-0.050454 0.056330 -0.182038 
-0.042909 0.061061 -0.174242 
-0.035875 0.065882 -0.165941 
-0.026229 0.070255 -0.160198 
-0.016922 0.074678 -0.154146 
-0.006377 0.078870 -0.149355 
0.003401 0.083185 -0.143832 
0.017706 0.086646 -0.142946 
0.034918 0.089514 -0.145144 
0.049241 0.092879 -0.144510 
0.063338 0.096245 -0.143748 
0.075153 0.100024 -0.140692 
0.085423 0.104089 -0.136069 
0.098187 0.107624 -0.134151 
0.191652 0.094218 -0.219176 
0.202347 0.097847 -0.215886 
0.258858 0.091538 -0.262765 
0.275888 0.093566 -0.266982 
0.294270 0.095223 -0.272878 
0.310162 0.097365 -0.276185 
0.324523 0.099797 -0.277925 
0.337098 0.102593 -0.277764 
0.348231 0.105692 -0.276050 
0.356733 0.109396 -0.271370 
0.365626 0.112992 -0.267175 
0.372670 0.117035 -0.260843 
0.379398 0.121156 -0.254136 
0.383218 0.126026 -0.243950 
0.390675 0.129972 -0.238086 
0.400349 0.133328 -0.234927 
0.409402 0.136829 -0.231060 
0.418367 0.140337 -0.227127 
0.426515 0.144054 -0.222217 
0.433361 0.148127 -0.215699 
0.439065 0.152526 -0.207734 
0.443855 0.157198 -0.198578 
0.264553 0.215802 0.047458 
0.276209 0.219244 0.049752 
0.288365 0.222504 0.051309 
0.300077 0.225862 0.053357 
0.312385 0.229001 0.054528 
0.327472 0.231227 0.051873 
0.246087 0.264135 0.179455 
0.249843 0.270322 0.192997 
0.252059 0.277053 0.208756 
0.250547 0.285077 0.229818 
-0.331608 0.005744 -0.192223 
-0.315264 0.009755 -0.190936 
-0.298793 0.013708 -0.189863 
-0.287120 0.018236 -0.184788 
-0.276555 0.022892 -0.178800 
-0.143949 0.011103 -0.279123 
-0.116539 0.013078 -0.288837 
-0.104141 0.017049 -0.285541 
-0.092834 0.021150 -0.281336 
-0.088890 0.026307 -0.270561 
-0.084346 0.031397 -0.260273 
-0.087519 0.037677 -0.242886 
-0.082265 0.042719 -0.233098 
-0.077660 0.047878 -0.222669 
-0.072814 0.053018 -0.212417 
-0.069812 0.058479 -0.200378 
-0.063852 0.063476 -0.191078 
-0.054430 0.067898 -0.185065 
-0.048233 0.072869 -0.175959 
-0.040078 0.077505 -0.168733 
-0.030590 0.081902 -0.162818 
-0.021394 0.086343 -0.156639 
-0.011618 0.090668 -0.151057 
0.003143 0.094041 -0.150519 
0.019465 0.097070 -0.151673 
0.035016 0.100195 -0.152177 
0.049371 0.103507 -0.151574 
0.062222 0.107079 -0.149518 
0.074015 0.110834 -0.146438 
0.087988 0.114108 -0.145726 
0.158621 0.105333 -0.205396 
0.194119 0.103693 -0.228466 
0.214713 0.105119 -0.235908 
0.254684 0.102145 -0.264698 
0.274901 0.103402 -0.272363 
0.293095 0.105031 -0.278018 
0.315800 0.105528 -0.288908 
0.327882 0.108426 -0.288125 
0.337589 0.111857 -0.284740 
0.348012 0.115094 -0.282224 
0.356857 0.118695 -0.277954 
0.362304 0.123137 -0.269768 
0.369900 0.127041 -0.264072 
0.375072 0.131568 -0.255526 
0.381534 0.135770 -0.248481 
0.386196 0.140456 -0.239267 
0.391358 0.145024 -0.230612 
0.401874 0.148137 -0.228455 
0.405189 0.153227 -0.217510 
0.234852 0.207429 0.008939 
0.240057 0.212744 0.019437 
0.248708 0.217077 0.025640 
0.267603 0.218382 0.018803 
0.269357 0.224723 0.033707 
0.275387 0.229816 0.043210 
0.286575 0.233338 0.046030 
0.298403 0.236631 0.047935 
0.311287 0.239554 0.048354 
0.325218 0.242097 0.047261 
0.340319 0.244204 0.044454 
0.354778 0.246456 0.042355 
-0.333054 0.017692 -0.197958 
-0.315595 0.021514 -0.197593 
-0.305027 0.026195 -0.191513 
-0.295882 0.031055 -0.184247 
-0.289384 0.036274 -0.174711 
-0.121145 0.036135 -0.262718 
-0.123467 0.042335 -0.246159 
-0.118392 0.047454 -0.236132 
-0.105957 0.051432 -0.232764 
-0.098023 0.056104 -0.225330 
-0.093009 0.061254 -0.215194 
-0.087842 0.066396 -0.205157 
-0.079619 0.071037 -0.197951 
-0.068456 0.075171 -0.193534 
-0.062994 0.080285 -0.183720 
-0.053801 0.084749 -0.177460 
-0.044600 0.089203 -0.171226 
-0.033555 0.093310 -0.166815 
-0.025999 0.098052 -0.159013 
-0.014097 0.101967 -0.155523 
0.001724 0.105094 -0.156024 
0.019064 0.107870 -0.158187 
0.034437 0.110980 -0.158499 
0.048619 0.114282 -0.157713 
0.061807 0.117749 -0.156003 
